# 3D point list with one line of data per point:
#   POINT3D_ID, X, Y, Z, R, G, B, ERROR, TRACK[] as (IMAGE_ID, POINT2D_IDX)
# Number of points: 370, mean track length: 2.8891891891891892
1 2.2045722657204072 -0.17043954978608522 6.1336189981052947 204 131 100 0.40084445423678505 4 631 6 130 3 5117
2 2.2244964403300234 -0.13675182687689547 6.1261325364784369 205 124 103 0.088879684621566757 4 1225 6 136
3 2.2457619396963215 -0.13926485391153992 6.1222144629515745 204 135 112 0.32467992571621446 4 1276 6 139 3 877
4 2.2664564647428662 -0.1300022739357275 6.1226369098594393 116 77 67 0.315178227197626 4 1330 6 545
387 2.2438440131317083 0.004102523442395159 6.1300194022129784 108 52 41 0.19377303349784 4 10577 5 16263 7 14126
5 2.2980907571621412 -0.12392319971776321 6.1259164738425245 65 29 25 0.26844095191586786 4 1452 6 594
6 2.2996209694413157 -0.12167148975213586 6.1314672464333988 104 68 56 0.48262445830325784 4 1455 6 601
397 2.3422683636911916 -0.16938276922752366 6.1252357173966825 132 79 67 0.08224471877987205 5 12771 7 10946
7 2.2570693846353764 -0.11027275264346668 6.1301591732972307 73 39 28 0.23319240267494895 4 2068 6 602
8 2.3917371526847511 -0.070113447865357351 6.1170887377196186 31 15 14 1.7160863876910351 4 2569 6 8292
9 2.4136831735537276 -0.063916476459672203 6.1108869211924413 69 43 47 0.16497851760117122 4 2593 6 3474
10 2.2896195486572122 0.0011866108994321861 6.1682952768980819 116 71 69 0.34812914283026297 4 2872 6 1313 3 6701 5 4398
11 2.4081137300794015 0.04604609292582041 6.1424457918283855 107 47 29 0.068274451448703491 4 3173 6 1468
395 2.1860236864952309 -0.51273826981937032 6.2888253219289894 88 84 69 0.14076818042639083 2 7034 1 5288
12 2.1191370616789902 0.097388958991051974 6.1566215903279433 139 81 66 0.51128572949715212 4 3315 6 1512 3 10002
13 2.1195380940362174 0.099457503910863859 6.1563753443981497 145 87 75 0.48949939581276708 4 3316 6 1513 3 3112 2 6081
14 2.1164909956330566 0.1088534343616802 6.1608698371069606 178 106 85 0.17304198317138103 4 3323 6 1515
15 2.0369273305471651 0.23122410586190284 6.200552365223114 165 97 68 0.48640701628033617 4 3839 6 1665 3 7375
16 2.092914473681093 0.23961965371304222 6.1491540955195543 169 107 89 0.32550763825756313 4 3870 6 1671
17 2.0706193622481779 0.27509620583062316 6.1709392624808057 183 108 88 0.53486984831610618 4 4090 6 1756 3 3701
18 2.0738924732290229 0.29111290841662474 6.1775759163080055 157 112 89 0.64477841304275718 4 4101 6 1762 3 3713
19 2.127713297350768 0.31946182696337722 6.1294836627106273 165 115 99 0.98510696505321427 4 4225 6 1763
20 2.1525603896632619 0.35512122215998942 6.1254828199484388 124 68 45 1.4743221462772684 4 4372 6 1852 3 7664
21 2.1912914116497442 -0.1576570363356713 6.1344653849884256 205 133 104 0.24877120742041878 4 5882 6 2908 3 8795
22 2.2487306355890446 -0.13574922538895545 6.1206867200378108 135 79 54 0.040638274108271061 4 5928 6 140
23 2.2493670730691191 -0.13408951033409477 6.1223988523251727 177 110 90 0.016605283359417321 4 5930 6 509
24 2.2912050582368533 -0.12296520920312522 6.1191168602522827 55 32 20 0.90497825272820742 4 6010 6 592
25 2.3193995887580341 -0.12473664654186696 6.1327952245853652 106 72 58 0.94360714192380202 4 6079 6 641
26 2.258384612230393 -0.11095423267627576 6.1310042042927568 125 77 64 0.15465307290460226 4 6475 6 3179
27 2.260836646833658 -0.10409731865959886 6.1334201584530925 113 59 42 0.28950935540988743 4 6486 6 604
28 2.2782826006380139 -0.11684805695283011 6.1292179956678705 112 66 53 0.47445017285910895 4 6492 6 589
29 2.2846872651917174 -0.11945015109697997 6.1272871068001873 111 71 59 0.34273391159775785 4 6494 6 590
30 2.2882374057441757 -0.11689661080860538 6.1309136691103525 117 70 58 0.47430245015541184 4 6495 6 591
31 2.3608811302199122 -0.078312352637012736 6.1059195945328391 82 48 43 1.0901078807427536 4 6506 6 3408
32 2.4020024149654162 -0.11869867310705327 6.1398256370948854 160 83 69 0.99270125806272558 4 6512 6 3221 3 5842 5 15841
33 2.2905811559075495 -0.0017296162047134855 6.1683941902041841 107 73 70 0.40108476616764016 4 7074 6 1312 3 6699 5 9845
34 2.2905811559075495 -0.0017296162047134855 6.1683941902041841 107 73 70 0.40108476616764016 4 7075 6 1311 3 6700 5 9844
35 2.4156059941899466 -0.016961802097178222 6.1531475477468058 66 34 25 0.70012988028991607 4 7168 6 3708 3 6757
36 2.0296755221624405 0.0058108668666242425 6.2390816621311593 67 44 34 0.014462699433969259 4 7254 6 3745
37 2.0925121550230985 0.016991398565274707 6.2175881806732436 86 46 38 0.47761337738445264 4 7300 6 1449 3 6684
38 2.0925121550230985 0.016991398565274707 6.2175881806732436 86 46 38 0.47761337738445264 4 7301 6 1450 3 6685
39 2.036571366315588 0.065490527963835074 6.2337058115403057 144 82 64 0.47088792942437435 4 7365 6 1486
40 2.1184037855029594 0.10074778298791935 6.1571628016758684 141 80 66 0.47942411950959168 4 7509 6 1506 3 10005
41 2.215966478552291 0.12617071941429325 6.0598101378439218 48 26 22 1.3010136355105668 4 7523 6 1460
42 2.0347879932078303 0.22333861142672273 6.2022825160669344 161 99 78 0.19972489453132572 4 8038 6 1657
43 2.0351055554087019 0.2277356106508347 6.2014344864116966 161 92 71 0.6304954180169613 4 8049 6 1662
44 2.0494116492177481 0.23961988752092567 6.1885651649872297 153 91 68 0.22858170911607098 4 8065 6 1668
45 2.0670745404924364 0.27274505607469041 6.1727699839714738 153 80 64 1.0524222678139485 4 8226 6 1753 3 10473
46 2.1422625433411717 0.33926066496101359 6.1225116824300905 156 110 92 1.3228320097021364 4 8339 6 4085
47 2.146085990509575 0.34714965301368483 6.1244663694887711 133 74 53 1.5295078674708893 4 8343 6 1847
48 2.1487670864559307 -0.15268959290013856 6.1465148849930342 171 94 71 0.35425685492590026 4 9721 6 2904 3 11416
49 2.2021982923515724 -0.14837388905601551 6.1302582088457473 210 138 116 0.19205400679011755 4 9744 6 2909 3 5121 5 12984
50 2.2020396203540917 -0.13764771512451018 6.1302361849632465 202 133 107 0.25690627823189183 4 9753 6 2912 3 11435
51 2.2474641169115728 -0.12872533239551476 6.1241173102211324 139 81 62 0.16110301678262157 4 9785 6 4962
52 2.2808142659778818 -0.12700344040093203 6.1253779469048419 106 72 60 0.31448379576671626 4 9833 6 4987
53 2.2785381178710278 -0.12311921089771287 6.1261709782422411 110 66 57 0.19164997350937316 4 9836 6 4990
54 2.3082959260040266 -0.12607193475688516 6.1294093541981312 109 69 58 0.55297174804580029 4 9844 6 4996
55 2.2425500249994537 -0.10127265927875302 6.1324384747968699 111 54 35 0.089539735386083286 4 10192 6 4970
56 2.259174408945694 -0.11466929775672415 6.1305531157144468 136 78 63 0.23549966820225934 4 10195 6 3152
57 2.2669451733961887 -0.11418948398361874 6.125531144795997 121 77 62 0.36548671604924554 4 10201 6 3160
385 2.4528576747397368 -0.12229530707735038 6.1581133019558481 120 59 53 0.45288757160544152 4 10241 5 15869 7 13896
58 2.2704378018370468 -0.11477706612821743 6.131027871004731 126 77 63 0.006955933288975865 4 10202 6 3161
59 2.3867682215823871 -0.12016576919915896 6.1377188889948489 131 73 65 1.1804501093842317 4 10222 6 5026 3 9273
60 2.0096994165842146 -0.091619151328225998 6.244551396849209 149 90 75 0.33170104389980148 4 10314 6 6565
61 1.9953357654658774 -0.051115804932327855 6.2197161458051449 123 79 63 1.5763957163863527 4 10330 6 5074 3 11789
62 2.0069387737096624 -0.033733998130721685 6.2216271534147305 17 10 10 0.24628509117360242 4 10513 6 3564
63 2.0711246517052464 -0.030044022551172278 6.2325757756970344 216 193 255 0.010528908191013677 4 10554 6 5318
64 2.06949696379617 -0.026653861632616668 6.2346771770571543 219 192 255 0.37136440814503591 4 10558 6 5298
65 2.0682075548907681 0.067593678317014183 6.2175882185796478 135 73 55 0.66032651434357215 4 10765 6 1492 3 12151
66 2.1019470360608672 0.088614095504222348 6.1797746211890834 181 115 95 0.80048044650476657 4 10778 6 3780
67 2.1212639530008079 0.093700493075253549 6.1554744923716749 188 126 107 0.73571893535840061 4 10911 6 3787 3 10014 2 14953
68 2.1168529945753027 0.10147751724950277 6.1587931100165019 165 92 80 0.48225670343040211 4 10913 6 3783 3 10003
69 2.3342288520128829 0.11155298759284848 6.1186980822832551 150 73 55 0.84010922712864888 4 10927 6 1530 3 10019
70 2.0559286417517102 0.16766751296019827 6.1860391400812516 163 91 63 0.69214059891979585 4 11021 6 3826
71 2.0845467857275315 0.14902491704142437 6.1731477791039842 187 108 97 0.19043572549834997 4 11023 6 3827 3 10118
72 2.0830822044652466 0.16101776391370487 6.1722162342726987 158 87 66 0.35493137467686103 4 11028 6 3828
73 2.1930683626628769 0.18769495961834204 6.0980373421648695 121 64 48 0.77085042801328563 4 11236 6 3852 3 10247 5 14337
74 2.0928865331040063 0.25231667107246408 6.1491022338907246 140 82 58 0.61323362947386961 4 11375 6 5552 3 12450
75 2.0729925259868933 0.27419748138361516 6.1690387952604553 139 70 55 0.52914739803882149 4 11475 6 5620 3 12515
77 2.1821040748183522 -0.1257721683616167 6.1361369073551915 186 111 80 0.15997421963890093 4 12540 6 4951 3 11654
78 2.2457338368055879 -0.12851290476666644 6.1238250597502528 193 131 122 0.14124725370849664 4 12560 6 4961
79 2.2800253003969502 -0.12582283348204454 6.126367513618777 111 74 66 0.49206945273532848 4 12597 6 4988
80 2.2800253003969502 -0.12582283348204454 6.126367513618777 111 74 66 0.49206945273532848 4 12598 6 4989
81 2.0458513078997385 -0.1110980812230329 6.2143681596227109 151 74 62 0.39910294587163048 4 12791 6 6446 3 11607
82 2.1919949876640823 -0.11749512250404846 6.1335234810856445 192 114 87 0.29044410627760991 4 12826 6 4952 3 11656
83 2.2491856043790284 -0.11400037466063058 6.1277877902933859 92 51 41 0.16858878530005861 4 12851 6 4968
84 2.2530562185587257 -0.10966344726312625 6.1311302538176493 125 76 60 0.052892609908617508 4 12853 6 4993
85 2.0199887938834697 -0.071858135582204399 6.1933003304708514 121 74 60 0.53485879622412413 4 12930 6 5079
86 2.223942135081499 -0.070588153539720019 6.1326102208305571 160 90 65 0.28797919730827287 4 12969 6 3374
87 1.9958558796192858 -0.014403401904080237 6.2716377629571936 62 41 37 0.25880880020416153 4 13070 6 6775
88 2.0735551112332606 -0.035358631593168696 6.2302185871724625 10 6 7 0.72174997319831746 4 13106 6 6715
89 2.2829663612585911 -0.00017335457726928849 6.1697008900740533 115 79 68 0.42044530433034544 4 13129 6 3631 3 9797 5 13630
90 2.0885123156775007 0.030367840334245368 6.2163414301060715 140 87 78 0.45708122292963393 4 13183 6 3748 3 9787
91 2.1097746244368434 0.020875158282425275 6.2110441632030318 143 89 78 0.52569902330932028 4 13188 6 5434 3 12095
92 2.1097746244368434 0.020875158282425275 6.2110441632030318 143 89 78 0.52569902330932028 4 13189 6 5435 3 12094
93 2.3443753112342556 0.044251488357342154 6.1494532032791867 143 95 78 0.40243301521900637 4 13200 6 5447 3 12168 5 16265
94 2.0558013306996195 0.082975808244313679 6.2125862217381016 102 44 28 0.3801513034962884 4 13253 6 5466
95 2.0558655446920158 0.082655490263460946 6.2137367521320979 102 44 28 0.61381245559668296 4 13254 6 5465 3 13851 1 14912
96 2.0578974079371459 0.084121622890841519 6.21212388273337 171 109 94 0.33921772234293407 4 13259 6 5467 3 12233 5 13954
97 2.0688984944065822 0.081126442132177415 6.2070621238140067 158 100 82 0.31993151055347252 4 13260 6 5471 3 13852
98 2.1808966148527498 0.098253936055598401 6.0285655440739729 178 83 59 0.53169360348994588 4 13273 6 5336
99 2.114971726455309 0.10142190195023439 6.1613851048264969 202 130 108 0.86019032413967922 4 13356 6 7747 3 14905
100 2.0107170266054917 0.14560171707068117 6.2309293113557933 174 100 78 0.4602545601889263 4 13413 6 5507 3 13941
101 2.3430632914208926 0.16657565145616013 6.1075904949155522 167 86 64 1.3856066981454744 4 13437 6 3865
102 2.0236943051336596 0.17326520948939828 6.2133726418926116 176 97 73 0.0066594923156573643 4 13504 6 6825
103 2.1948062922110267 0.2026437796722893 6.0960774233371229 114 58 44 0.89384450428852558 4 13525 6 5517 5 14340
104 2.4241678801763298 0.22988374655688831 6.1294617413790373 156 85 72 1.5500036934461323 4 13592 6 3938
105 2.1542010111588308 0.35629098656254221 6.1250019174011978 152 99 73 1.5695545028932785 4 13697 6 6942 3 14066
106 2.2383338328763136 -0.50313697798609036 6.2762332947578514 82 76 79 0.097014660957375806 4 13817 3 10724 2 15836
107 2.2305234828103453 -0.46238506584060118 6.3085637911726353 88 82 84 1.0924596766580981 4 13918 3 12878 2 12279 5 15007 1 5379 7 10208
109 2.621015615547349 -0.30135806087131867 6.3298115157953827 113 104 105 0.15209497398433125 4 14112 3 13131
111 1.9452333561505226 -0.24153025437050452 6.5482409999001225 68 66 65 0.7857568835224642 4 14189 3 13134
112 2.247629603143511 -0.14239890387969401 6.1214833759288485 205 132 101 0.51647465316689634 4 14359 6 2913 3 13295
113 2.2397079165509819 -0.14051749465763408 6.1237940647057227 170 92 69 0.024426573502319374 4 14363 6 6382
114 2.2644736149699831 -0.12105326582406396 6.1270186069072938 134 84 72 0.04000950030487474 4 14379 6 6514
115 2.2797247209594209 -0.12112683837433079 6.1272668974699851 82 48 38 0.57707467266870771 4 14393 6 7528
116 2.3519581502611784 -0.12161056251163434 6.1359913951101195 123 66 54 0.92234646398912179 4 14414 6 7535 3 13457
117 2.3518788169827332 -0.12196024882908248 6.1371408979014674 123 66 54 0.25491412474793856 4 14415 6 7536
118 2.160087282803957 -0.11468574626747698 6.1462089586706252 159 99 77 0.033785287631197397 4 14487 6 6500
119 2.1752343184869076 -0.11542796869816839 6.1392853885264289 180 105 79 0.0052810903912286801 4 14490 6 6501
120 2.2016173581981304 -0.11020278371631641 6.1313890761714447 169 100 72 0.069549644578046355 4 14493 6 4956
121 2.201626076478389 -0.11020319502088753 6.1313507455763956 169 100 72 0.085127175448869177 4 14494 6 4957 3 11670
122 2.2657597823757323 -0.1106447843430806 6.132236910864191 133 81 64 0.24874468616970524 4 14502 6 6524
123 2.259436735540981 -0.10594571061064932 6.132599048820583 145 87 73 0.60416248744486523 4 14503 6 7530 3 13440
124 1.9938831171095932 -0.046482779826927473 6.2215394910575021 119 73 57 0.22906319737977243 4 14686 6 7651
126 2.0621487073745364 -0.032463019857106673 6.2437797787628373 22 12 9 0.72405175997828031 4 14759 6 6707
127 2.0643934958902799 -0.027893352427921889 6.2354154718376682 25 12 8 0.37468035733585098 4 14767 6 6709 3 13622
128 2.1878055633657487 -0.020438053837022949 6.1118175986875087 154 86 50 0.37439275477948908 4 14805 6 5134
129 2.3296896022466029 0.04224497303750302 6.1525306552471726 131 85 69 0.25445016682113902 4 14857 6 6782
314 2.2390967216565949 -0.5108346541717278 6.269046150707152 28 24 24 1.9264471207187044 4 15255 3 14273 5 14883 7 6062
130 2.0980304581985747 0.052507915872127525 6.2090243625688704 132 86 68 0.57829971632859678 4 14904 6 6781 3 13857
131 2.0924308045824427 0.057241348405706181 6.2099597146429799 134 87 68 0.43411707676866929 4 14907 6 5436 3 13844
260 2.2400636333910953 -0.48683481573778825 6.2887328161927449 55 45 52 0.078022459999294705 4 11955 3 10763 2 15826
132 2.0299687715279306 0.083464806275038925 6.2304915934749339 136 72 51 0.46468128905266454 4 14969 6 5462 3 13909
133 2.0660812725372297 0.14114402604220042 6.1848486721591582 162 83 64 0.36082847016493652 4 15016 6 6827 3 13945
318 2.6119151260057079 -0.27590477645135864 6.3489118191234857 47 45 44 0.51966288961450768 4 14169 3 14579 5 15264
134 2.3271619532866401 0.15449058200361951 6.1123365850798672 163 84 66 1.1731046369351616 4 15020 6 6829 3 13951
135 2.2374337788325009 -0.51508853343040728 6.2870035024392337 95 87 80 2.5329327718858909 4 15250 6 8063
312 2.0080412277598425 0.16153858587425168 6.2330305443154659 167 81 64 0.34892405804431137 4 13420 6 6823 3 13943
136 2.6232773149378428 -0.30174265220409474 6.3279666634239433 61 58 56 0.062254933818399735 4 15406 3 14544
137 2.6203366577567753 -0.29549646380532257 6.3338787599733992 97 90 93 0.2080306304107653 4 15408 3 14543
258 2.2111831763813523 -0.49577831674893907 6.2904885146266523 39 37 39 0.27928205998085476 4 11948 3 10754 2 15808 5 11672
268 2.1441918557851567 -0.1533751148009862 6.1470584440173148 164 93 67 0.99732562308655925 4 12518 3 11415 5 15687
141 1.897487547322154 -0.30895204302715024 6.5082115823038107 85 76 83 0.61716582367421191 4 15421 3 13033 2 16045
262 2.247041495818582 -0.47097203654900138 6.2995321538733213 122 106 104 0.23979425400614793 4 11959 3 10769 2 15887
144 1.8986948096653127 -0.26898825752868 6.5378276198312442 74 69 71 0.25672308926104326 4 15458 3 14515
145 1.9478012900501265 -0.25057502564789352 6.5376147818541037 81 80 79 1.2022716783664735 4 15461 3 13135 2 16140
266 2.1288672344071058 -0.25515623514728952 6.1844349482695335 146 70 39 0.10500706273045635 4 12278 3 11125 2 16313
146 1.9365911180270319 -0.24440789914251093 6.5484981013179793 87 84 85 0.4384874798925964 4 15463 3 14552
276 2.3576833200148766 0.056792895329607775 6.1435006842144002 142 93 74 0.073652959029850362 4 13282 3 12173 5 16383
148 2.2621582741001145 -0.13114001371962797 6.1199809570049331 134 82 74 0.28395500498622711 4 15543 6 7519
149 2.2478545328638306 -0.11731216652934597 6.127351308648934 153 100 84 0.14097694783777814 4 15589 6 8232
270 2.0210814072966858 -0.11086721571916398 6.2275292379121394 156 80 61 0.63407884420633109 4 10104 6 5075 3 11605
151 2.37804514188793 0.047309538463350204 6.1430796162107457 156 103 87 0.27654154656832014 4 15722 6 7735 3 14882
264 2.257839057211191 -0.48315965932485921 6.2854881480202742 51 48 46 0.18307669430138485 4 13921 3 10771 5 14909
152 2.3773883783251044 0.068963499572282899 6.1343957761359098 134 66 49 0.10816461553785137 4 15772 6 6783
153 2.4442536932523655 0.13945515809086712 6.1334499008930665 153 73 65 1.0557402267110978 4 15817 6 7761
155 2.1936992836157465 -0.49803533095484204 6.3094782201465325 19 17 16 2.2964122057670884 4 16029 6 8926
284 2.1004432975357599 0.24380917825135379 6.1420244004257381 129 70 46 0.34172969667966174 4 13591 3 12452 1 13574
156 2.250151982296523 -0.46633135383365326 6.3171292498059195 109 99 103 1.8884786325984988 4 16036 6 8583
157 2.2491954997252241 -0.4635389990111865 6.30275016704213 109 99 103 1.8246490937460271 4 16037 3 15178 5 7269
278 2.3315524445765758 0.11856685305527785 6.1173029544444528 162 71 55 0.66586053504153575 4 13357 3 12301 2 15079
272 2.3780421159213381 -0.13724943743682666 6.1304857112312989 112 60 44 0.59178668638939935 4 14419 3 11717 5 15813
162 1.9077402320388568 -0.30931344481877998 6.505340640822098 49 43 46 0.2913144377551512 4 16124 3 15764
292 2.2397544241142446 -0.49679049586574459 6.2813144959730245 134 127 130 0.17043524632469612 4 13919 3 12808 2 15840 1 9132
164 1.9199287921735853 -0.3097976201994867 6.5032135683796763 67 63 67 0.14391445079264523 4 16126 3 15255
165 1.9533119237239707 -0.27809896969976572 6.5180041567834639 34 35 36 0.51104227454174556 4 16130 3 15283
166 2.13219813796794 -0.24487184018047237 6.1791761808938146 164 91 63 1.6401838740354007 4 16133 6 7414 3 15286
168 1.9361586607191039 -0.26736849594224255 6.5297834519545246 93 87 88 0.41415458711982622 4 16149 3 15284
169 1.9303140958489815 -0.25912018617441912 6.537803968940624 79 78 75 0.23497632193722301 4 16150 3 15281
290 2.2268970542667947 -0.49482410945572425 6.2868952576761474 130 118 118 0.40888953333788514 4 13906 3 12806 2 15819 1 5315
170 2.268139645406813 -0.14427850176087198 6.1100763848708493 95 58 46 0.13064538917922514 4 16177 6 8172
171 2.3063422300598022 -0.12508684171079204 6.1300618971177405 106 65 53 0.91033657963161907 4 16185 6 8236
300 2.2535721753629963 -0.47562289292959598 6.2935413867238292 34 36 32 0.22866185898697869 4 11960 3 12824 2 15888 5 14997
172 2.2593753034046795 -0.51155728585585947 6.2643763759077871 71 51 70 0.21498315268524384 4 74 3 13 5 7093
173 2.1132886299176077 -0.17765882149019324 6.1614070092120903 211 131 102 0.22881164310416643 4 617 3 368 2 2662
294 2.2283959790113572 -0.4864438581803065 6.2927297176076475 59 51 51 0.31776646751909071 4 13910 3 12810 2 15821
174 2.106435798520339 -0.11516559772573794 6.1754299298359285 83 50 29 0.39669405532758312 6 420 3 1391
175 2.1261053795420457 0.017005001418229276 6.2085845605941232 126 74 69 0.2144231497686355 4 7308 3 2830 2 10595 1 3198
288 2.2101603377051529 -0.48923877862112392 6.2956131641315158 98 90 95 0.17326382173261992 4 13904 3 12803 2 15812
176 2.2933130498773115 -0.0021944921697994862 6.1674846322887094 110 70 66 0.050759816433117173 4 7076 3 2854 5 4395
177 2.1029969695340869 0.067215386515489653 6.1933839470953966 156 95 72 0.14342770598193769 4 3223 3 3005 2 11158
298 2.229951408030554 -0.46590869749697933 6.306863897085246 115 101 102 0.35338377280659539 4 13917 3 12817 2 15886 1 12071
178 2.4118475582783976 0.040613382606077317 6.1451016914782146 82 41 24 0.23378459244434663 4 3169 3 3019 5 10154 7 11547
179 2.4118471291507859 0.04065655778127604 6.1450651216343504 82 41 24 0.16373577560105021 4 3170 3 3020 5 10153
308 2.066260428746153 0.069694787765543484 6.2170231274466214 146 92 77 0.4437815263934401 4 13257 6 5464 3 13847
180 2.0553045218970123 0.084255948887222029 6.2139633354915018 144 80 70 0.65986207496856764 4 3214 3 3096 1 3812
181 2.11834089706469 0.1019297065399476 6.1579287847929454 167 99 83 0.3656573661044023 4 3317 3 3115 2 6078
302 2.1341825747289178 -0.24548030474611782 6.1766233148943259 155 80 52 0.26094596467426495 4 12280 3 13108 2 16315
182 2.069766355546145 0.1301119410265166 6.1868190363663498 186 106 87 0.19160443582897269 4 3305 3 3264 2 11298
183 2.1005450066912479 0.30577950699314865 6.1685386596130449 129 82 66 0.34940880795218748 4 4105 3 3807 2 6547
296 2.2129448149245272 -0.47344392798440599 6.3055207884087157 177 169 160 0.23844745728719846 4 13912 3 12814 2 15883 5 14976 1 12061
184 2.101625928790428 0.30461961992462838 6.167950988563204 132 77 63 0.3968409395086161 4 4104 3 3808 2 6548 1 4539
185 2.2954139097203923 0.30178977395710183 6.0853574225536571 160 103 90 0.39777921705383484 4 4108 3 3813 5 11160 7 3942
306 2.0324621542670593 -0.11608795092548944 6.2183031768072521 181 111 95 0.681995028140438 4 14471 3 13394 5 15906
186 2.1977943216682663 0.35871279583693499 6.1070676746792651 146 79 67 0.79362000457069948 4 4376 3 3911 5 6507
187 2.2095870686096921 -0.51212376465809795 6.277376688683292 56 50 56 0.14256588556821392 4 4636 3 4127 2 7050 5 7066
316 2.2477648934898182 -0.46887491311305879 6.3007083931586614 118 106 108 0.40245127156245314 4 13926 3 14312 5 15000
188 2.2108985218719965 -0.51321520471456428 6.2769699155895244 95 92 81 0.075404450219960048 4 4637 3 4128 5 7067
189 2.2147373920927578 -0.51205270624006327 6.2763618321682024 70 59 69 0.44795649382927383 4 4638 3 4129 2 7052 5 311 1 5307
310 2.0275087164131449 0.12389237988109822 6.2192724518175879 142 63 54 0.27346006087496172 4 14970 6 7757 3 13910
190 2.2562763227920914 -0.51272900015474787 6.2641826746053404 135 125 110 0.19973975521112966 4 4649 3 4142 5 11684
191 2.2579599521000215 -0.50596078584432047 6.2669651072063512 37 31 35 0.43794262357555586 4 4650 3 4145 2 296
304 2.1949355877692014 -0.20357893651460712 6.1436933130116831 175 94 65 0.73597689209715134 4 12368 6 6327 3 13165
192 2.2497753550616419 -0.46966670392456317 6.2998211781505269 94 83 87 0.14861446252314733 4 8853 3 4157 2 7155
193 2.2636855831309575 -0.48711370503411594 6.2810069087463622 98 68 77 0.26537079837151012 4 4851 3 4163 5 364
378 2.2772613590199029 -0.0010341711527015046 6.169322667133633 113 75 66 0.4297816692396636 4 10581 5 13628 7 7879
194 2.205300392009292 -0.44936343496243331 6.3263132807929958 96 73 78 0.24934753179368854 4 4919 3 4211 2 7142
195 2.1200216304345245 -0.23792631002235859 6.1798010343254806 158 77 47 0.25474586502621877 4 5334 3 4523 2 8070 1 9693
324 2.2474661581506137 0.30711448089184812 6.0764834816994071 113 44 42 1.0713226328635077 6 9261 3 16216
196 2.127287449001118 -0.21327075268194928 6.1658969247864714 163 84 63 0.23781394343205312 4 5425 3 4650 2 2203
197 2.1921434060507776 -0.21714291672386488 6.1472051455695063 168 86 60 0.24714718045157769 4 5342 3 4654 5 2188
382 2.2616313689650598 -0.51235130399845707 6.2653267134955257 52 33 65 0.37310587155512565 4 8708 5 14900 7 10141
198 2.3624837733481696 -0.15499237016351536 6.1204261398989592 38 20 16 0.21714393415869693 4 1490 3 5260
199 2.0880158535716014 -0.11515021452562661 6.1881966868123781 111 57 42 0.39448677766309304 6 414 3 5557
376 2.6008385410848192 -0.24409957354532019 6.3676436109643983 127 118 129 0.28185849049214412 4 9353 5 12490 7 10601
200 2.1311991067550382 -0.10085355623154078 6.1710463531186326 135 69 45 0.16025143527792315 4 1958 6 491 3 5624
201 2.3994463974692017 -0.11031548040266718 6.1422291571825234 145 72 59 0.35345859196264123 4 6513 3 5845 5 9429
322 2.1050343300089427 -0.2036023848679635 6.17566660329648 169 90 61 0.33372590261110407 4 16156 6 8167 3 15307
202 2.0979003060661192 -0.081811037622980212 6.2082185871800588 100 48 41 0.32229791879685216 6 905 3 6131 2 9805
203 2.2175415080521015 -0.062295341176774918 6.1283295861098752 170 90 61 0.1351990596919376 4 6784 3 6185 5 13420
332 2.2194241947986688 -0.51176089777735911 6.2752760143963915 100 84 102 0.44116270101411481 3 4130 2 7053 1 162
204 2.2104267238200803 -0.049558483335344447 6.1244345319177773 185 118 95 0.29519633618574831 4 2491 3 6189 5 3984
205 2.1159953587488998 0.006893242072339989 6.2120978728015412 109 63 62 0.24247828587264589 4 7303 3 6687 2 10591
326 2.1170186862060794 0.090593598174091974 6.162936944671852 165 90 83 0.060294254056988274 3 3102 2 5850 1 3827
206 2.1079923521929862 0.017560240502235522 6.2126564697036049 123 77 62 0.26543264010759604 4 7304 3 6688 2 10592 5 10136
207 2.2896195486572122 0.0011866108994321861 6.1682952768980819 109 69 63 0.34812914283026297 4 2873 6 1314 3 6702 5 4399
208 2.2917409758960794 0.013708523455633684 6.1650367853143955 107 68 64 0.083263143826724575 4 7319 3 6703 5 13827
209 2.1020619952391622 0.094414216265887349 6.1778938082205661 157 75 58 0.081998083539593258 4 3309 3 6930 2 11166
210 2.1172989096620034 0.10292594345103734 6.1590279821285767 179 105 88 0.50924623204762109 6 3785 3 6937 2 15060 1 11227
211 2.1187224125830548 0.10315989024651766 6.1584684105515466 154 85 76 0.19741066456080525 4 7510 3 6938 2 11315
340 2.1137522519198235 0.10122519196049352 6.1644618587768285 159 80 69 0.28939185050270316 3 6936 2 11313 1 11140
212 2.3941603795251298 0.070881953208061579 6.1320619519822328 79 27 20 0.22664406247272428 4 7393 3 6947 5 10397
213 2.3948654043490212 0.071970935562371371 6.1322544619123747 142 78 66 0.23508310394626117 4 7395 6 3803 3 6948 5 10398
334 2.0693033993987573 -0.20950633252345813 6.203706147889994 159 85 69 0.059384551502406846 3 365 2 8459 1 6284
214 2.0978266999205868 0.27335837968646126 6.1529476194207016 123 67 47 0.72438500034380926 4 4092 6 1758 3 7500
215 2.1488102204218604 0.34735082066627487 6.1193785128625811 150 83 71 0.53675004607815702 4 4235 3 7654 2 6617
328 2.1199091979529534 0.090618418701165382 6.158004062301174 173 97 91 0.33884977689114332 3 3103 2 5860 1 8117
216 2.2959381121176383 0.40765809799023589 6.0991572501207028 137 81 63 0.54469743708490836 4 11681 3 7738 5 14566
217 2.1922228334231706 -0.51184331341390832 6.2822136299239615 58 40 53 0.37673619393928581 4 8679 3 7850 2 7042 2 12204 1 5295
338 2.1127340744716587 0.082890982573125382 6.1724975968602029 145 71 52 0.037628842797337296 3 3007 2 11165 1 8111
218 2.2004682457627451 -0.5123634899625138 6.2797712077272827 58 40 52 0.26304078128292008 4 4635 3 7853 2 12208 1 5298
219 2.2084868517162821 -0.51314514547252643 6.2772223435743442 126 121 112 0.18710052387087844 4 8689 3 7855 2 7048 5 7065
348 2.2028942821380975 -0.45621696529131522 6.3219152098688056 97 81 82 0.35299513771055557 3 7932 2 12258 1 5375
220 2.2134435990013976 -0.51306967616910681 6.2760796036890794 140 129 110 0.219839843144015 4 8690 3 7857 2 7051 5 7068
221 2.2162534009231711 -0.48692443408871483 6.2961492013127796 92 90 85 0.18607971486380773 4 8836 3 7882 2 7064
342 2.1228888738770664 0.13847306432839812 6.1577822912758471 125 53 44 0.11275907968802712 3 7061 2 11336 1 11234
222 2.2332445069689353 -0.49989467185846564 6.2807327107996285 120 117 114 0.22143921644328712 4 8693 3 7888 2 7073 5 11673
223 2.2341727460215495 -0.48825992227912302 6.2894570151549765 112 100 108 0.22193553882585934 4 4845 3 7890 2 7077
336 2.0536594849846894 0.082593862674881738 6.2157098053173856 163 93 88 0.14896247762167744 3 2997 2 11152 1 3810
224 2.214972632827882 -0.4757369481663874 6.3036833700988604 96 92 90 0.34017920970132831 4 8839 3 7892 2 12266 5 7229 1 5285 7 961
225 2.2104703510969914 -0.47144119327395212 6.3074091528325686 145 142 144 0.19739372938817057 4 8840 3 7893 2 12268 5 7232
282 2.0991678933603222 0.22336815112654196 6.1470978643811964 143 74 52 0.11314013410738828 4 11368 3 12449 1 13535
226 2.258151019139131 -0.49028953366798006 6.2800128679331619 52 48 45 0.2607525226976532 4 4850 3 7898 2 7095
227 2.2118941500031752 -0.46189245969346954 6.3136001754905493 175 149 150 0.083097453130297039 4 8845 3 7935 5 7250
356 2.0452100868299095 0.17724350643529221 6.1931904758581222 168 80 67 0.24867124983353464 3 10190 2 15183 1 11315
228 2.2125253510049712 -0.46066868525587273 6.3144711865707732 106 93 98 0.24827828940245913 4 4848 3 7936 2 7139
229 2.0375368796180027 -0.129375007339391 6.2040908066185301 108 63 50 0.33488483453827 4 10099 3 8667 2 13590
286 2.2335995631871715 -0.51267231610864539 6.2702545551852262 113 104 102 0.6721079850733459 4 11843 3 12773 5 7070
230 2.1417474641417344 -0.15337498173254621 6.1474599990803194 186 116 92 0.29472912503359544 4 5808 3 8759 5 8948
231 2.1912914116497442 -0.1576570363356713 6.1344653849884256 207 124 99 0.24877120742041878 4 5881 6 2907 3 8794
280 2.19455033745332 0.20252877058318064 6.0963500976863996 121 56 41 0.26356596262827886 4 13524 3 12377 5 14339
232 2.3563837274872057 -0.15049915592137081 6.118529015402844 42 22 18 0.2646249088063603 4 6055 3 8878
233 2.0121231247196816 -0.097335250314041707 6.2392017752711597 162 90 71 0.098932139994800897 4 6320 3 9073 2 14027
354 2.1664777189600111 -0.08085644107066299 6.1477151025702215 168 85 60 0.30656099421126143 3 6159 2 14068 1 14656
234 2.1120319140622028 -0.11291292690817469 6.1730644461776469 133 82 66 0.73262403345782801 4 6364 6 4945 3 9104
235 1.9917623957025248 -0.078043425441856648 6.2681800056201027 131 62 49 0.048926954914045986 4 10312 3 9380
364 2.2639040700387669 -0.51088028811224617 6.266754268971189 58 63 56 0.075155656801640852 4 8710 5 7101 7 6075
236 2.1681507113427649 -0.064727790309380209 6.1475270941721751 156 86 55 0.43163382758037855 6 949 3 9445 2 14292 1 10629
237 2.1710846355906277 -0.063339889450771833 6.1444035513875974 165 93 63 0.080084730128753764 4 6767 3 9449 2 14297
358 2.2266314681246158 -0.55184734730848028 6.3224726154467286 119 112 107 0.47439958374359886 3 12766 2 15741 1 89
238 2.1710499165397374 -0.06339744310968741 6.1442279586601982 165 93 63 0.4471894223980481 6 950 3 9450 2 14298
239 2.2131676634699593 -0.061045426231630659 6.1276859615788233 176 100 69 0.1757921107642483 4 10379 3 9469 5 13422
352 2.0471859064900446 -0.15659277740694827 6.1884171445805904 112 63 50 1.2298208509049999 3 8672 1 12652
240 2.0710971573073946 -0.02990649946090887 6.2320101477326633 255 245 255 0.5648780326951256 4 10555 3 9647 2 14268 5 13570
241 2.3624363362548886 -0.042775701873335029 6.1573125507476503 30 17 14 0.24416937446592368 3 9666 2 14357
242 2.3642062911336419 -0.042793691589117555 6.1566257489006695 255 247 255 0.52214084241331127 4 10434 3 9668 2 14359
243 2.1059964696929283 0.024928199462405119 6.2122824342351581 128 80 75 0.19436572861597326 4 10692 3 9790 2 14827
372 2.2571858458935106 -0.51387176348371166 6.2648372524208265 35 32 21 0.34477875577006073 4 4647 5 11682 7 10134
244 2.1164252649363275 0.097065005589051997 6.1602178941759878 183 109 92 0.50002518303911048 4 7508 6 1501 3 10001 2 14951 1 11141
245 2.0846618752775692 0.14893590415977026 6.1735502141510308 181 104 88 0.27690369074484122 4 11024 3 10117 2 15192
246 2.3335817786542101 0.11893438025531314 6.1170357156769795 186 105 91 0.22621975559886703 4 10928 3 10120 2 15080 5 14093 7 8140
247 2.186972087891708 0.19580633045480714 6.0983638489505259 120 63 45 0.78954697140664365 4 13520 6 3853 3 10239
360 2.2148531171792198 -0.46210658097221874 6.3124837859973439 168 150 156 0.40127656845040888 3 12816 2 15889 1 12066
248 2.0338296900493873 0.22981151706875474 6.2032520598000165 199 109 81 0.69550343085936239 6 3923 3 10371 2 15435 1 13529
249 2.0338898568159429 0.23361353828453585 6.2037494937441711 156 80 58 0.27660242306609328 6 3927 3 10372 2 15436
370 2.2605691294781671 -0.51538054411308865 6.2655318721934927 38 35 25 0.68025393295665093 4 8707 5 11680 7 10139
250 2.0595281877703062 0.26376215905755407 6.1795618469371494 161 104 81 0.77419057723032914 6 4018 3 10471 2 11755 1 4413
251 2.0714998082823799 0.27344968159847455 6.1692244238595384 152 88 72 0.80218070139216913 6 1755 3 10474 2 15499 1 11524
380 2.2370437489638659 0.18801593589183205 6.0917765377268616 129 62 45 0.36212910750716532 4 7887 5 14345 7 11748
252 2.2448562946101429 0.35403094442774402 6.0962380561385832 120 58 41 0.57625660822911007 4 11555 3 10555 2 11907
253 2.1905190527669882 -0.51277757437044358 6.2827263849571828 135 130 121 0.36249963542875924 4 11836 3 10715 2 15794 5 7057 1 12030
374 2.2705142637189413 -0.46253536789053912 6.3014606131241599 61 63 55 0.29524775195483138 4 8856 5 11847 7 10229
254 2.2007088433613164 -0.51376911030832928 6.2800538561566261 124 119 106 0.17440731292682524 4 8687 3 10720 5 11661
255 2.2071063178027606 -0.51457872919849112 6.277978232093969 37 37 35 0.90374703784487043 4 8688 3 10721 5 7061
368 2.2868002294006375 0.010197868073619928 6.1660816289714635 81 44 37 0.20644252729560086 4 7318 5 10149 7 7881
256 2.2042864315350013 -0.46976350690695629 6.3107180541115939 158 149 147 0.37307597556151184 4 8841 3 10750 2 12253 1 5376
257 2.2085280019897491 -0.46355037950928973 6.3134913115017781 143 133 135 0.14334265398913829 4 8844 3 10753 5 11816
259 2.2369376149136304 -0.50118051619681425 6.2787032755504857 74 71 69 0.536432201295584 4 11846 3 10760 2 15838 1 5311
261 2.2243255253373153 -0.46700471814875216 6.3066879279366956 93 82 85 0.26205812971314102 4 11952 3 10768 2 12272
263 2.2590868809574784 -0.48794838800185975 6.2815993573513298 53 44 46 0.17180411432962858 4 11954 3 10770 2 15844
265 2.2692435252585303 -0.45290364787100351 6.3093619422881257 38 38 37 0.23975887639335397 4 12012 3 10821 5 15014 7 13174
267 2.3310525923694971 -0.20508008390842053 6.1384583979472005 171 93 74 0.45582519532166371 4 12379 3 11241 5 15444 7 10808
269 2.1882200741815483 -0.14924737548193828 6.1345755143006109 172 97 68 0.43691630969305423 6 4802 3 11434 2 13792
271 2.1976565194619004 -0.12037321076065617 6.1319315686545677 182 96 67 0.21467287596732199 4 12827 3 11664 5 13275
273 2.0610392676774056 -0.026537609239474527 6.231234706822824 24 10 7 0.36633781476236055 4 10556 5 13564
275 2.3409921183648414 0.050083635542852833 6.1491647215402701 147 91 69 0.14420548883044243 4 13201 3 12169 5 16380
277 2.1199327555982448 0.09572319550728256 6.1561243565042014 140 67 58 0.63986740364790018 4 10912 6 3788 3 12237 1 13346
279 2.0388856292811015 0.18672607295069057 6.1977780072263453 172 92 71 0.3368179074936033 4 11176 3 12350 2 15181
281 2.0377724887526396 0.23221387564728241 6.199549143971649 182 111 85 0.44546176156541439 4 11355 3 12447 2 15439 1 13565
283 2.1004432975357599 0.24380917825135379 6.1420244004257381 129 70 46 0.34172969667966174 4 13590 3 12451 1 13573
285 2.2057454335435942 -0.51178582200555389 6.2787714148486362 45 35 36 0.60011110969297055 4 11841 3 12768 2 15804 1 9117
287 2.2045504356880024 -0.49958568898984507 6.288923012229982 90 88 90 0.33808060350558716 4 13811 3 12801 2 15807
289 2.2133724082254815 -0.48676194097662412 6.2968148193246201 97 93 87 0.048404483412277675 4 11950 3 12804 2 12221
291 2.2375674832332919 -0.49570857524865147 6.2827006674487507 100 93 91 0.22935208809318666 4 13907 3 12807 2 15823
293 2.2283624309937009 -0.48656333065288021 6.2925459034071487 59 51 51 0.31005218964665748 4 13909 3 12809 5 14906
295 2.2149241170154133 -0.4782914579905479 6.3020466550812264 104 94 93 0.45395195957551721 4 13911 3 12813 2 15881 5 14975 1 14088 7 10154
297 2.2156524994631281 -0.47194854135981018 6.3055660607936641 97 89 91 0.32640292092446554 4 13913 3 12815 2 15884 1 12062
299 2.257686202873086 -0.49345309763216622 6.2771684131133174 55 47 49 0.38483685180258176 4 13920 3 12823 2 15842
301 2.2229975301394376 -0.46204786172991824 6.3100201084065368 101 88 87 0.32767898938072632 4 13916 3 12877 2 15890
303 2.6272914759814991 -0.31209677942585995 6.3192749589102952 81 76 78 0.52548664837101644 4 12225 3 13130 5 15189
305 2.5929457936436044 -0.24554420210701089 6.3665954895296721 96 83 86 0.55863887182602168 4 14173 3 13179 5 15386
307 2.3410092698938936 0.023605839518037117 6.1514543264939405 111 53 44 0.83412284037831386 4 14856 3 13784 2 14838
309 2.3528724978159801 0.057300730706378984 6.1435398195066622 148 87 68 0.051854638645914775 4 14922 6 5448 3 13864
311 2.1214973809905517 0.096735483609450071 6.1549499875670941 178 106 90 0.63796058076264128 4 13354 6 6807 3 13913 1 14916
313 2.0312519261340123 0.15101747261525408 6.2086899359402299 168 83 66 0.35529568214427393 4 15014 6 6824 3 13944
315 2.2391459576176578 -0.49938956085893366 6.2792651117427249 128 119 119 0.44240372207687961 4 15256 3 14307 2 15839 1 9123
317 2.2572291817611223 -0.47828802862624836 6.3070268456332412 37 34 34 0.83143611454543065 4 15301 6 8071
319 2.6054379119035316 -0.25124292117996389 6.3658062049752484 102 100 99 1.2262341355394286 4 15444 3 14581 5 15384
321 1.9992834163545583 0.19208912151770907 6.3680586781927149 170 109 90 0.57192929691081917 6 5614 3 14930
323 2.3965239201227222 0.08825975338939307 6.1258825749341295 121 53 37 0.43384008659961742 4 16361 6 6809 3 15495
327 2.1168843540870217 0.095593936214003528 6.1600166638826535 168 97 88 0.14089251832602756 3 3108 2 5859 1 8120
329 2.1150247940892628 0.10327614926527383 6.1618703698768611 149 69 60 0.10504955834386527 3 3113 2 6071 1 8232
331 2.188667251339 -0.50590668844064324 6.2881714944836391 52 38 41 0.19553896090251169 3 4123 2 7041 1 5301
333 2.222575763933345 -0.46822265000823887 6.3061188238134029 117 110 119 0.29444456544308034 3 10767 2 7151 1 232
335 2.1405896986838311 0.0063421633338713312 6.2030187810650839 128 78 76 0.24014123963667411 3 6693 2 10594 1 10848
337 2.0544765480487621 0.085711235262584021 6.2138697900635647 176 94 83 0.080906269533577033 3 3097 2 11154 1 3813
339 2.1193888025565473 0.094317070900917052 6.1569785374849078 167 96 89 0.076428502232617948 3 3107 2 11176 1 3848
341 2.1205974292112781 0.13192532976699506 6.1600097834597491 164 98 89 0.46663791690947343 3 7056 2 11329 1 4077
343 2.2042402773243079 -0.52249445627760138 6.2894504180968926 53 49 52 0.2748238000020114 3 4124 2 12202 1 9052
344 2.2395319073354445 -0.50587453611367583 6.2733828515949472 27 22 27 0.15567783116529885 4 8706 2 12234 5 7091
345 2.2401147446597403 -0.50245864324734868 6.2759482896233534 27 19 22 0.54331949385298162 3 10761 2 12235 1 9122
346 2.2068970077405936 -0.46222712379046188 6.3151093196214809 169 150 165 0.20922592798317252 3 10752 2 12254
347 2.2014260531299144 -0.45692450363299936 6.3221659165882222 192 176 185 0.25354013714278095 3 10808 2 12257 1 9164
349 2.2289035322120991 -0.47634420000586181 6.3006495309371653 98 88 95 0.26573857337789808 3 26 2 12267 1 5316
350 1.9050509119250025 -0.26598262263631683 6.5368281051186816 77 64 65 0.88243800933681094 3 13086 2 12664 1 9479
351 2.1072240023332327 -0.26020422601846299 6.1988978291095957 163 81 50 0.016077525293866871 3 8328 2 12886 1 5979
353 2.1838801029488399 -0.10816795269004074 6.1357233203522066 204 127 106 0.61836899418197788 3 11662 2 14063 1 7157
355 2.121418619192184 0.087556081376425399 6.1568243577160908 134 64 56 0.15765839122403849 3 10011 2 14949 1 11143
357 2.0985113524181109 0.25650286857576204 6.1446177616700108 136 73 51 0.32674046464831724 3 10478 2 15454 1 11456
359 2.1881665404919888 -0.51312558781226214 6.28415550214888 191 168 143 0.31303416923653554 3 10714 2 15793 1 12028
361 2.0618246039561203 -0.2424106766340976 6.2275352054663644 156 73 55 0.16009287375746847 3 8326 2 16300 1 12417
363 2.229921059927519 -0.51258371408493597 6.271545003250675 119 90 117 0.5024566082154428 4 68 5 7071 7 6061
365 2.2625054022726498 -0.4925865744498919 6.2763341242713047 90 79 81 0.42582974556171788 4 8850 5 7115 7 846
367 2.2588650552172105 -0.0071340229527526722 6.1556743209510927 81 44 38 0.21434630543280064 4 7063 5 9827 7 7870
369 2.281102808565687 0.30688274682555544 6.0790196359198401 145 86 78 0.43809156789369791 4 8237 5 11159 7 8574
371 2.2635269218663749 -0.51488606485854471 6.2665871607463739 29 25 33 0.11741058401620359 4 4651 5 11681 7 10140
373 2.2475275253233677 -0.4563097868592933 6.3090360571011432 63 58 60 0.32721879064311143 4 12011 5 11843 7 10226
375 2.333195264066914 -0.24565749925487501 6.1552119130120984 159 80 61 0.21012932611361432 4 9315 5 12398 7 10696
377 2.3636839512544059 -0.13422581141954038 6.1293880742100351 132 85 76 0.25600784683467098 4 9912 5 13136 7 11119
379 2.267155668287522 0.069203027677649451 6.1142096212638748 145 64 42 0.32929780668421088 4 7389 5 13961 7 11542
381 2.2174561081670285 -0.51231177706936404 6.2751536942795587 80 62 75 0.76594303782115281 4 13812 5 14881 7 799
383 2.6617157438078864 -0.25969524851345033 6.3443913766002717 31 22 20 0.22031890326607564 4 12329 5 15278 7 10594
384 2.3378411683746769 -0.24850283370915177 6.1577858293497956 160 80 58 0.13290329362019307 4 9317 5 15315 7 10697
388 2.2599121253073404 -0.15445577651199022 6.1199732772144824 188 127 102 0.059305441258957814 4 5904 5 8988
390 2.1584817355195387 0.17514490176349201 6.1098664275912897 110 47 34 0.21767316332678327 2 6210 1 4235
392 2.1126929801966394 0.081712366400915032 6.1725749164023762 137 71 54 0.17976013479834252 2 5839 1 8109
394 2.1317097089633128 0.094016804556601941 6.1101701980491709 127 57 45 0.021902205114478938 2 14960 1 11154
399 2.3707499734377313 -0.056844110587842681 6.1495991249931734 25 12 8 0.71097158448956077 5 16047 7 13969
400 2.6602581292356424 -0.33138268968487944 6.3770903448279244 82 80 79 1.639412865979343 5 12190 7 13281
